0.0294400466875	-0.496817693901	0.0480790702642	0.058874633	-0.99362773	0.096112983
-0.262571030846	0.179740241678	-0.385661146933	-0.52514365	0.35947917	-0.7713617
-0.283595610239	-0.283514419701	0.298678055236	-0.56719253	-0.56702401	0.59730763
-0.418801781656	0.0146892818899	0.272768423455	-0.83760308	0.029379439	0.54548871
-0.0205416561912	0.417791144955	0.273940791227	-0.04108811	0.83557782	0.54783343
0.0721506933591	0.451371947596	0.202657003616	0.14429536	0.90273898	0.4052668
-0.412953767883	-0.0643725167898	0.274479279798	-0.82590713	-0.12874311	0.5489104
-0.0527249745666	0.0326496634673	-0.496119944275	-0.10545432	0.065299964	-0.99227783
-0.390590964618	-0.00381457504063	0.312152824573	-0.78118182	-0.0076280295	0.62425699
-0.0678051145479	-0.207849458042	-0.449649021173	-0.1356144	-0.41569509	-0.8993366
0.158419505321	0.175457588284	0.440614846276	0.31683184	0.35091392	0.88117933
-0.152836413305	0.327638357242	-0.345370744808	-0.30567587	0.65527344	-0.69078143
-0.205015564253	0.395294455802	0.227426667839	-0.41003348	0.79058474	0.4548058
-0.341677510322	0.118400864998	-0.345287989259	-0.68335556	0.23680123	-0.69061592
0.194897857173	-0.146315730073	-0.436567929445	0.38978806	-0.29262845	-0.87317459
0.256610191326	0.413406930888	-0.115086788025	0.51321191	0.82680945	-0.23021657
-0.482954236987	0.12234534115	-0.0422572556656	-0.96590714	0.24469013	-0.084558471
-0.0319971176409	-0.298728275568	-0.399653949706	-0.063998881	-0.59745152	-0.79934712
0.225241008348	0.385807327903	-0.224528933627	0.45047396	0.77161061	-0.44909941
-0.293885258459	-0.339696142185	0.219658721337	-0.58777169	-0.67938671	0.43927001
-0.284077313433	0.387464918892	-0.138442447873	-0.56815593	0.77492577	-0.27692758
0.0618867753093	-0.482780140832	-0.114422088618	0.12376766	-0.96555281	-0.22888718
0.0530154464924	0.285210085943	-0.407221954882	0.10602512	0.57041746	-0.81448303
-0.125523522221	0.145625805499	0.461584275304	-0.25105045	0.29125075	0.92311791
0.469359916856	-0.106624926923	0.135440872973	0.93870854	-0.21324737	0.27083543
-0.37540275892	-0.141383652374	0.298493359011	-0.75080561	-0.28276436	0.59693824
-0.404965759923	0.24802557441	0.156505622632	-0.80993122	0.49604893	0.31296465
-0.00913847258807	0.351537525694	0.355466701744	-0.018281894	0.70307146	0.71088417
0.30817048317	-0.0647555843295	0.388406880138	0.61633181	-0.12950924	0.77676409
-0.219632991167	0.402840225831	-0.198680712253	-0.43926814	0.80567618	-0.39740331
0.122390026446	0.433514184199	0.217023653867	0.24477336	0.86702369	0.43399991
0.467521494668	0.0160798081091	-0.176530175395	0.93503172	0.032160473	-0.35310253
-0.394306429252	-0.219629971147	-0.215121096253	-0.7886127	-0.43925596	-0.43028386
0.221390142817	-0.366219953038	-0.258578164373	0.44277228	-0.73243398	-0.51719742
-0.190363882113	-0.32039662423	0.333354360139	-0.38073031	-0.64078793	0.66665978
0.365013060037	-0.340319896321	0.0308988348593	0.73001621	-0.68063421	0.06175274
-0.251384841682	0.425162408827	-0.077722015297	-0.50277142	0.85032025	-0.15548752
0.044879795553	0.490421616495	-0.0864384730871	0.089753926	0.9808378	-0.17292032
0.346173865133	-0.154258837736	0.326171152515	0.69233807	-0.30851456	0.65229346
0.448021010379	0.014093812442	0.22157160402	0.89603101	0.028188508	0.44309575
0.341213182243	0.352031453969	0.0982673065122	0.68241677	0.70405931	0.19648879
-0.18003462863	-0.428175513804	-0.18506183196	-0.36007194	-0.85634428	-0.37016573
-0.0254592837951	-0.366998918203	-0.338603194939	-0.0509233	-0.7339919	-0.67724642
-0.159053929528	0.226699978021	-0.416284394966	-0.31811082	0.45339802	-0.83260779
-0.153535882943	0.331313266607	-0.341533644368	-0.3070748	0.66262321	-0.68310728
-0.154679910528	-0.385085568117	0.278923989266	-0.30936284	-0.77016496	0.55779976
-0.0191714236065	-0.17538919783	-0.467817981633	-0.038347663	-0.350775	-0.93567428
0.311802562251	0.153204055743	0.359622609298	0.62359592	0.30640715	0.71919593
0.328828990136	0.154535124568	-0.343482047286	0.65764855	0.30906927	-0.68700406
0.478766034219	0.0115678126946	-0.143696217706	0.95752065	0.023136542	-0.28743505
-0.0472353726705	0.0372847031976	-0.496346260776	-0.094475189	0.074569982	-0.99273046
0.0111542369526	0.335996132654	0.370137369011	0.022303256	0.67198888	0.74022531
-0.0421419594012	0.0551181204331	-0.495143457801	-0.08428843	0.11023658	-0.99032487
0.232049148486	0.327381885542	0.298314792827	0.46409015	0.6547605	0.59658111
-0.0575370914709	-0.442943346714	-0.224686819674	-0.11507849	-0.88587975	-0.44941518
0.105018711274	-0.160893051721	-0.461592855361	0.21003096	-0.3217829	-0.92322411
-0.415016311558	0.0708458397079	-0.269687698029	-0.83003219	0.14169181	-0.53941634
-0.130100302565	0.462158789113	0.139612105628	-0.26020395	0.92431252	0.27917784
0.417655589057	-0.0216307104116	-0.274024041779	0.83530057	-0.043260064	-0.54808897
0.297026284284	0.102710670972	-0.388861548152	0.59404356	0.20542105	-0.77776246
0.0872796536641	0.264894496251	-0.414967671236	0.17455308	0.52978655	-0.82997436
-0.411967076342	-0.275319990372	0.0669815890879	-0.82393376	-0.55063526	0.13391777
0.327611562065	-0.108797181325	0.361738903329	0.65521371	-0.21759185	0.72342849
0.218321102469	0.250620156612	-0.3735143364	0.43663424	0.50123806	-0.74706824
-0.255435518537	-0.363453449696	0.229492721537	-0.51087272	-0.72690101	0.45893788
0.198134783634	0.337401471972	-0.311276333762	0.39626187	0.67479954	-0.62259306
0.349182990083	-0.138916116014	-0.329794031534	0.69835628	-0.27782932	-0.65962821
-0.233088230375	0.289808676432	-0.334167255529	-0.46617844	0.57961458	-0.6683746
-0.394068107672	-0.0681820820472	0.300127109843	-0.78813606	-0.13636219	0.60020572
-0.178976041611	0.465393090556	-0.0371093760352	-0.35795478	0.93078108	-0.07426278
0.304649214824	-0.147511883004	0.368036005079	0.60928932	-0.29502074	0.73602261
0.0741009412892	-0.453249710046	-0.19765911548	0.14819583	-0.90649234	-0.39536013
0.405156326186	0.175953936575	-0.234271878223	0.81030221	0.35190661	-0.46858517
-0.375687220806	0.180954294727	-0.27586878901	-0.75137453	0.36190726	-0.55177844
0.222189528117	-0.0823194957783	0.440317439305	0.44437104	-0.16463683	0.88058452
0.270427622935	0.230139725826	0.352029428955	0.54084659	0.46027747	0.70400967
-0.475742159171	-0.137332020511	0.0693790549831	-0.95148308	-0.27466115	0.13871267
-0.111640165174	0.146733432843	-0.464744741258	-0.22328392	0.29346599	-0.92952784
0.496445256432	0.0568049366167	0.0179409664486	0.99287886	0.11361019	0.035837175
0.0835435638938	0.10838766861	0.480934113593	0.16708095	0.21677497	0.96181733
-0.468146603812	-0.0247049312937	0.173888277879	-0.93629207	-0.049408465	0.34772973
-0.00479380448292	-0.356505478631	0.350571169287	-0.0095926154	-0.71300516	0.70109317
-0.363320863817	0.0821117094006	-0.333529836303	-0.72664198	0.1642234	-0.66709977
0.466716624331	0.131968124949	-0.121491315487	0.93342199	0.26393557	-0.24302554
0.249780666046	0.102420984051	-0.420838800161	0.49955295	0.20484168	-0.84171654
-0.21649025033	-0.117923331832	0.435026174224	-0.4329827	-0.23584403	0.87000206
0.0404648217818	-0.145376213844	0.476710870593	0.080924037	-0.29074943	0.9533709
-0.314565100567	-0.308197683351	0.236802825003	-0.6291311	-0.61639021	0.47355799
0.473682695516	0.15270132241	0.0481113819785	0.94735404	0.30540169	0.096177606
-0.0943268153868	0.409078527191	0.271609465771	-0.18865745	0.8181527	0.54317081
-0.139797221856	-0.427721995797	0.217998620331	-0.27959766	-0.85543725	0.43594983
0.283477464456	0.361784213629	-0.196845910088	0.5669461	0.7235647	-0.39373373
-0.106727297602	-0.433566034543	-0.224995556721	-0.21345825	-0.86712525	-0.45003265
-0.380651103717	0.0145253138028	-0.323852902145	-0.76130223	0.029051505	-0.64774603
0.308723181835	0.353882116238	0.171667088153	0.6174372	0.70776061	0.34328738
0.248726539057	0.271452214728	-0.338286907842	0.49744471	0.5429019	-0.67661385
0.372665415772	-0.256806367626	-0.212525274043	0.74532082	-0.51360826	-0.42509225
-0.496188279728	0.0213434775073	-0.0577914231571	-0.99237505	0.042687742	-0.1156266
0.366355718938	0.327381025536	0.0928121903448	0.73270151	0.65475878	0.18557863
-0.08324886194	-0.288558903146	-0.399735900249	-0.16650169	-0.57711291	-0.79951102
-0.305729456986	-0.314889672719	0.239555338252	-0.61145993	-0.6297741	0.47906298
-0.0224616969211	-0.335092921666	-0.370398805744	-0.044928166	-0.67018033	-0.74083722
0.173851037632	-0.376235084439	0.279714189505	0.3476947	-0.75246411	0.55938015
-0.131480961719	-0.351018537253	0.330932774084	-0.26296525	-0.70203135	0.66181664
0.106208504162	-0.115937728667	0.474661252004	0.21241053	-0.23187285	0.94927169
0.442531023981	0.0540874435998	-0.226354285729	0.88505111	0.10817524	-0.45275009
0.0536141204616	-0.0553785621599	0.494048965545	0.10722246	-0.11075532	0.98804686
-0.138704604612	-0.0782173735812	0.473990372556	-0.27741244	-0.15643264	0.94792994
-0.318359900726	0.306430611635	0.234006506463	-0.63672065	0.61285823	0.46796539
-0.162008074114	0.440561625924	0.172245541988	-0.32401907	0.88111848	0.34444428
-0.148771191353	0.407260725139	0.24903623611	-0.29754548	0.81451712	0.49802465
-0.0837829354809	-0.470744211034	0.146253929664	-0.16756983	-0.94148111	0.2924614
0.178070035604	-0.10750072773	0.454707854713	0.35613264	-0.21499896	0.90936516
-0.351621001247	-0.0741984019354	-0.347625379756	-0.70324241	-0.14839475	-0.69529067
0.281498816337	-0.231657380888	-0.342173978613	0.56298883	-0.46331062	-0.68438794
-0.256345479571	0.165664628356	0.396057695863	-0.51269263	0.33132813	0.79206562
0.335246517684	-0.248958465595	-0.27499543822	0.67048352	-0.49791256	-0.55003175
0.0410963514688	0.34616291506	0.358470971663	0.082187088	0.69232231	0.71689267
-0.254361341416	-0.213735817068	0.373679272494	-0.50872438	-0.42746773	0.74730907
-0.0985395833174	0.155900783622	-0.464722341109	-0.19708293	0.31180057	-0.92948304
0.142687481018	0.461684395968	-0.128396381268	0.285368	0.92336374	-0.25683558
0.045803625678	0.18339813593	-0.462871358837	0.091601574	0.36679491	-0.9257811
-0.130128752754	-0.404325880681	-0.263777243843	-0.26026085	-0.80864533	-0.52759551
-0.0573340551248	0.49216892308	-0.0669482788671	-0.11467242	0.98433239	-0.13394019
-0.00305633166348	0.11156708969	0.487409811527	-0.0061176928	0.22313377	0.97476864
0.244288849635	0.293593736526	-0.322669409298	0.48856939	0.58718465	-0.64537906
-0.425721627534	0.0337560578027	0.260065999238	-0.85144268	0.067512738	0.52008403
-0.134359765805	0.480364869819	0.0346511852374	-0.26872282	0.96072444	0.069257391
0.408048685363	-0.269463461543	0.104384062066	0.81608689	-0.53892228	0.20872222
-0.365951951261	0.00704026517696	-0.340611053251	-0.73190412	0.014081507	-0.68126211
-0.27968177429	0.325220121209	0.256949348574	-0.55936491	0.650437	0.51385077
-0.223016013596	-0.220179249788	0.389621253189	-0.44603414	-0.44035451	0.77919282
0.147011754688	-0.329794661539	0.345894258279	0.29401649	-0.65958388	0.69173941
0.124392039719	-0.44194426009	-0.198008822798	0.24877736	-0.88388159	-0.39605954
0.368362092241	0.291013249418	-0.172098421013	0.73671423	0.58202371	-0.34423908
-0.352701458411	-0.0813441443117	-0.344921831832	-0.70540331	-0.16268614	-0.68988361
0.00183013718381	0.283709940997	-0.411691644516	0.0036551801	0.56741719	-0.82342235
0.182827852149	0.255639834892	-0.388855893115	0.36564821	0.51127735	-0.77775115
-0.0639151337573	-0.368478483012	0.331898515487	-0.12783449	-0.73695101	0.66374811
0.342866198203	0.328105865342	0.157483409115	0.68572278	0.65620845	0.31492021
0.447601092595	0.0125013778841	0.222513940267	0.89519118	0.02500366	0.44498041
0.429361911669	-0.214609062858	0.140011628277	0.85871306	-0.42921421	0.27997688
0.419525666455	-0.269384891022	-0.0378686900694	0.8390407	-0.53876514	-0.075781398
-0.170913388156	0.360776176946	-0.301027950815	-0.34182958	0.72154864	-0.60209643
0.294007014267	-0.0143094348716	-0.404155839553	0.58800506	-0.02861761	-0.80835084
0.361627952593	0.29725633581	-0.17567271971	0.72324604	0.5945098	-0.35138763
0.436623904816	-0.00803770028995	-0.24349467437	0.87323695	-0.016074224	-0.48703064
0.0718269662128	-0.397364564527	-0.294844479819	0.14364791	-0.79472279	-0.58972957
0.256831827795	-0.423815834899	-0.066480540766	0.51365518	-0.84762498	-0.13300472
-0.340364376616	0.231730361372	0.283667240714	-0.68072931	0.46345872	0.5672862
-0.348967858657	0.33333184499	-0.130792512154	-0.69793616	0.66666034	-0.26162781
0.386543277782	0.0599052121716	-0.311427369763	0.77307636	0.1198107	-0.62289513
0.431689577102	0.129436943167	0.216576065899	0.86336836	0.25887324	0.43310474
0.258803015864	0.269215564899	0.332510334544	0.51759753	0.53842863	0.66497174
-0.123910601527	-0.00705775879294	0.484376516416	-0.24782463	-0.014114354	0.96870209
-0.213166243292	-0.328163980727	0.311263548677	-0.42633473	-0.65632254	0.62247845
-0.0260101354472	-0.496785693689	0.0503328937071	-0.052024996	-0.99356373	0.1006206
-0.0664109003043	0.0640303995215	-0.49139671796	-0.13282599	0.12806102	-0.98283144
0.315293215394	-0.0207921143517	-0.387486209034	0.63057718	-0.041582883	-0.7750118
0.183614732366	0.0741552216491	-0.459097333815	0.36722196	0.14831053	-0.9182331
-0.202161970334	-0.151344428414	-0.431518990971	-0.40432633	-0.30268578	-0.86307678
0.137409556025	-0.347444133555	-0.332251082825	0.27481222	-0.69488259	-0.66454228
0.325624618891	0.341251052494	0.165916590027	0.65123985	0.68249865	0.33178646
0.340883495058	0.135740324958	0.339695492181	0.6817574	0.27147992	0.67934196
-0.42790643202	0.148830051743	0.211556392619	-0.85581226	0.2976592	0.42306546
-0.276601513868	0.404050868857	0.101195285925	-0.55320443	0.80809745	0.20234471
0.220727113421	9.21464409309e-05	0.448669074676	0.44144623	0.00018536166	0.89728768
0.059644790445	-0.427806021354	0.251872574915	0.11928372	-0.8556053	0.50369729
-0.0388021817585	0.451227236637	-0.211852714583	-0.077608919	0.90244956	-0.42374714
0.499361320766	0.0244875748526	-0.00664480055503	0.99871095	0.048975895	-0.013334033
-0.177992595091	0.427778586172	-0.187930055976	-0.3559879	0.85555257	-0.37590214
-0.0214984355346	-0.340918830292	-0.365102015626	-0.043001656	-0.68183207	-0.73024371
0.120937716817	0.169868461228	0.454469748134	0.24186876	0.33973574	0.90888895
-0.4227601929	-0.0590096412339	0.260392986405	-0.84551985	-0.11801743	0.520738
0.153482317588	0.188898097394	-0.436743785611	0.30695753	0.37779476	-0.8735263
-0.436554214354	0.237407759013	-0.0552843365352	-0.87310771	0.47481344	-0.11061246
0.108152477051	0.389820879512	0.293869448354	0.21629845	0.77963766	0.58769048
-0.280909907433	-0.0382906273669	0.411878280753	-0.56182116	-0.076579677	0.82370658
-0.301638209861	0.186484681393	0.352498412064	-0.60327749	0.37296796	0.70494763
-0.167291429142	0.313851145833	-0.351422139929	-0.33458571	0.6276992	-0.70288414
0.372495839647	-0.24577380448	0.225516275173	0.74498167	-0.49154328	0.45098504
-0.257746448859	0.313211561593	-0.292325063115	-0.51549455	0.62642004	-0.58469077
0.153934720587	-0.00480042727683	0.475716654001	0.30786233	-0.0095997209	0.95138248
0.179432754639	-0.248172680385	0.395267370623	0.35885806	-0.496341	0.79048498
-0.148559854952	-0.10485064516	-0.465744832888	-0.29712281	-0.20969883	-0.93152801
-0.26669832321	0.312391546156	0.285127775397	-0.53339818	0.62478002	0.57020725
-0.17945092476	-0.448029470435	0.130673866368	-0.35890454	-0.89605193	0.26130148
0.266480421765	0.419013998063	0.0585002428566	0.53295224	0.83802351	0.11695519
-0.0397191333379	0.30778889064	0.392056919337	-0.07944281	0.61557477	0.78406412
-0.255008455706	0.42870130229	0.0344815631128	-0.5100186	0.85739799	0.068918149
-0.463895385626	0.0130810297272	0.18611606895	-0.92778969	0.026162956	0.37218515
0.204368814965	-0.0495236933421	0.453657792751	0.40872985	-0.09904566	0.90726505
-0.42720365736	-0.117744145644	0.231613770599	-0.85440672	-0.23548566	0.46317995
-0.149683842404	-0.448505193589	-0.162584237933	-0.29937077	-0.89700337	-0.32521084
-0.273611339043	0.373149098979	-0.189445716025	-0.54722412	0.74629432	-0.37893344
0.0325512568148	0.403078122408	-0.294038094473	0.065097012	0.80615197	-0.58811681
-0.161937993649	-0.466577083406	0.0780280723261	-0.32387891	-0.93314691	0.15601059
0.355322905791	-0.169321682603	0.308374489523	0.71063603	-0.33864005	0.61670037
-0.358031828751	-0.324161464191	0.129383767814	-0.71606398	-0.64831756	0.2587213
-0.474390395208	0.140426341027	-0.0723307345528	-0.94877957	0.28085189	-0.14470503
0.469733329332	0.0971862993452	-0.141084130388	0.93945536	0.19437238	-0.28221091
0.054569986799	-0.27106643717	0.416614367153	0.10913418	-0.54212821	0.83317869
0.336562446409	0.128993335226	-0.346519687426	0.67311536	0.25798603	-0.6930793
-0.0176548915519	0.467825866685	-0.175562448979	-0.035314619	0.9356466	-0.35116709
0.39457772105	-0.0730627044057	-0.298265617501	0.78914514	-0.14612337	-0.5965718
-0.250582066359	-0.262284983949	0.344140756653	-0.50116588	-0.52456542	0.68823243
0.10380247321	-0.487878209633	-0.03468024243	0.2075985	-0.97574888	-0.069404545
-0.120881121442	-0.155421105442	0.459625247315	-0.24176571	-0.31083908	0.91919988
0.00247550426259	-0.114409618536	-0.486709451884	0.0049459057	-0.22881665	-0.97345697
-0.105962192529	0.318601677329	-0.370473921242	-0.21192805	0.6372002	-0.74098745
-0.262623006191	-0.0987889649708	0.413872458974	-0.5252476	-0.19757555	0.82769491
-0.0037029711507	0.394319634339	-0.307388197984	-0.0074109632	0.78863511	-0.61481684
0.461038676686	0.183299055273	-0.0620281212464	0.92206617	0.36659675	-0.12409994
-0.39271638371	-0.257080309442	-0.17227155216	-0.78543263	-0.51415614	-0.34458534
-0.0830741707818	-0.420627928763	0.257265670671	-0.16615231	-0.84124921	0.51448341
0.374134625513	0.125447641718	-0.307046545719	0.74825922	0.25089469	-0.61413354
-0.438987180485	0.0971961794107	0.218755300348	-0.87797361	0.19439214	0.43746318
0.139521135025	-0.388617781536	-0.281960919401	0.27903535	-0.77722934	-0.56396262
-0.222007981913	-0.428535836193	0.130682666426	-0.44401809	-0.85706492	0.26131908
0.281833238554	0.409818907099	0.0512354996914	0.56365767	0.81963345	0.1024258
-0.210047127612	-0.228425544461	-0.392029354155	-0.42009654	-0.45684699	-0.78409803
0.196100420146	-0.435512077445	0.147936525819	0.39219317	-0.87101731	0.29582657
0.137356320672	0.21430916087	0.430380958426	0.27470575	0.42861655	0.86071169
0.498037211987	-0.0428708042334	0.0112878668386	0.99606275	-0.08573997	0.022531064
-0.325001339759	-0.377768324604	-0.0408102810722	-0.65000344	-0.75553057	-0.081664541
-0.170519640545	-0.32983558681	-0.334842400005	-0.34104209	-0.65966573	-0.66972488
0.229811908653	-0.4023379125	0.187946716087	0.4596157	-0.80466942	0.37584642
-0.276061415287	0.400150868	-0.116900210048	-0.55212424	0.8002975	-0.23384339
0.330141238836	0.368846300451	0.0704762472575	0.66027303	0.73768878	0.14090704
-0.291788084555	0.295909976883	-0.278003848166	-0.58357737	0.5918171	-0.55604853
-0.242303826474	0.43625033734	0.031265163788	-0.48460951	0.87249596	0.062485393
-0.370501226423	-0.112803417887	-0.316214656503	-0.74100261	-0.22560427	-0.63246964
-0.277594745453	-0.38572245234	-0.155417975421	-0.55519088	-0.77143872	-0.31087841
0.0451669174567	0.120061466008	0.483290934219	0.090328166	0.24012241	0.96653094
-0.0118698251969	0.491894606261	-0.0888683141969	-0.023744563	0.98378376	-0.17777997
-0.269620252582	-0.379270839566	0.182945472928	-0.539242	-0.75853558	0.365844
-0.30859268597	-0.107173970563	-0.378509324517	-0.61718635	-0.21434545	-0.75705815
-0.27561230731	0.417142805657	0.00560875168602	-0.55122603	0.83428115	0.011172909
-0.381674405501	0.198599041712	0.254746098967	-0.76334882	0.39719652	0.5094443
0.238399255587	0.377179895703	-0.225599640726	0.47679028	0.75435586	-0.45124081
-0.221640894479	0.320510884987	-0.313266636958	-0.44328392	0.64101859	-0.62657364
-0.0515528117951	0.224411457848	0.443851752737	-0.10311001	0.44882101	0.8876531
-0.0439951016875	0.383077714805	0.318328055515	-0.08799469	0.76615142	0.63660737
0.137853428968	0.452345299049	-0.162408316767	0.27569996	0.90468567	-0.324859
-0.146166079081	-0.29757019789	0.374308711667	-0.29233529	-0.59513538	0.74856794
-0.262078847583	0.353209161777	0.237844826911	-0.52415929	0.70641471	0.47564198
0.300787084218	-0.17517793643	-0.358927384689	0.60156511	-0.35035248	-0.71789453
0.0135698954684	-0.411885450801	-0.283120912092	0.027134541	-0.82376437	-0.56628259
-0.148437734142	0.418018826465	-0.230691009481	-0.29687857	0.83603318	-0.46142348
-0.106911598824	0.00828415142392	0.488391023032	-0.21382685	0.016569263	0.97673105
0.126768595476	0.202051949604	0.439463353642	0.25353044	0.40410229	0.87887636
0.0395166239952	0.498087837322	0.0187285851705	0.079027654	0.99617014	0.037412402
0.236258436393	-0.225984408277	0.378331333337	0.47250867	-0.45196475	0.75661313
-0.334268001197	0.240636090417	-0.283457089321	-0.66853664	0.48127006	-0.56695494
0.257434481791	0.0739930155737	0.422227259367	0.51486048	0.14798612	0.8444044
0.0950765103573	-0.283164527381	0.400999073624	0.19014669	-0.56632423	0.80194831
0.178928701297	-0.274033301841	-0.377992006087	0.35784996	-0.5480619	-0.75602352
-0.475776529398	0.0102634710468	0.153424497204	-0.95155182	0.020527876	0.30680244
-0.499998624991	0.000784166849026	0.00126368342822	-0.99999569	0.0015693933	0.0024828301
0.263288495603	0.135019895182	0.403077222402	0.52656843	0.27003907	0.80610458
-0.262524015534	0.303476167047	0.2983258279	-0.52504962	0.60694938	0.59660318
0.240571469989	0.271056257103	-0.344445618674	0.48113468	0.54210999	-0.68893119
-0.106275454606	-0.238098653594	-0.426612933444	-0.21255457	-0.47619308	-0.85326473
0.341264727585	0.10302411805	-0.350590564415	0.68251986	0.20604794	-0.701221
0.264156956361	0.375582860114	0.197918362199	0.52830534	0.75116181	0.39578958
0.00440576686023	-0.434399450068	0.247573281411	0.0088064053	-0.86879207	0.49509876
0.231332883737	-0.426742214301	-0.119899064931	0.46265763	-0.8534777	-0.23984106
0.464625835469	-0.179254998461	0.044702710379	0.92924044	-0.35850655	0.089360308
0.368408427548	0.279829995273	-0.189649267375	0.7368069	0.55965735	-0.37934054
-0.232075628661	-0.430141956841	-0.105435789039	-0.46415325	-0.86027714	-0.2109147
-0.203916601967	-0.0889440646991	0.447804963947	-0.40783557	-0.17788588	0.89555947
0.376765572956	0.307551089064	0.116060729483	0.75352108	0.61509917	0.2320754
-0.382386245221	-0.0512430297413	0.318073108825	-0.76477249	-0.10248431	0.63609748
-0.296554106154	0.398206330108	0.0590880417537	-0.59310935	0.79640845	0.11813078
-0.0756105062977	0.444831814235	-0.215407918154	-0.15122508	0.8896588	-0.4308575
-0.356219026732	0.163090261288	0.310684304837	-0.7124384	0.32617943	0.62131997
-0.0168614172912	0.360453029804	-0.346087764562	-0.033727681	0.72090235	-0.69221546
0.328196485943	0.0323288348402	0.375850486889	0.65638355	0.064658311	0.75165147
-0.0591863024052	-0.441362116231	-0.227353967357	-0.11837689	-0.88271731	-0.45474944
-0.0788702529098	-0.114659410192	0.480267759175	-0.15774453	-0.22931623	0.96048463
0.482441263586	-0.00172947856644	0.131373696008	0.96487106	-0.0034578642	0.26270113
-0.0616498587386	0.398390276328	-0.295759855888	-0.12330397	0.79677634	-0.59156031
-0.25203312598	0.43050227423	0.0339143083519	-0.50406798	0.86099991	0.067783647
-0.402610589308	-0.0394713091948	0.293872643376	-0.80522091	-0.078941025	0.58769687
0.38314336024	0.284949899218	0.148378828752	0.76627657	0.56989709	0.29671117
0.366662360971	-0.227715284752	0.252430423614	0.73331479	-0.45542648	0.50481298
-0.029609206309	0.211406916628	-0.452120802561	-0.05922309	0.4228121	-0.90428013
0.303895464827	0.292345208249	-0.268652951169	0.60778183	0.58468761	-0.53734686
-0.19046005275	-0.0299398005009	-0.46131379851	-0.38092265	-0.059878134	-0.922666
-0.0487103774498	-0.300056504375	-0.39696235186	-0.097425179	-0.60010796	-0.79396396
-0.481136449935	-0.0780803726729	-0.111387478499	-0.96227159	-0.15615864	-0.222818
-0.0319490968225	-0.155740357559	-0.474032077833	-0.06390284	-0.31147758	-0.94810239
0.389595063015	-0.229898509227	-0.212975152025	0.77917989	-0.4597929	-0.425992
0.124371349582	0.275635482463	0.398218815191	0.24873598	0.55126838	0.79638783
-0.403997733505	0.277068486964	0.100121483805	-0.80799518	0.55413437	0.20019712
0.0092191096227	-0.230970201332	-0.443341454354	0.018433027	-0.46193627	-0.88672155
0.360473479939	0.283640015533	0.199050029702	0.72093711	0.56727734	0.3980529
-0.163465413776	-0.30371342862	-0.361972249876	-0.32693373	-0.60742176	-0.72398422
-0.474844088216	0.0725097657397	0.138825200411	-0.94968695	0.14501964	0.27760404
-0.458614750616	-0.00398313130816	0.199164515461	-0.91722849	-0.0079651398	0.39828187
0.343169965217	0.210186738538	0.296772557602	0.68633031	0.42037176	0.59349666
-0.367507896577	0.305521195606	0.146977599461	-0.73501599	0.61103941	0.29390873
-0.223491036746	-0.00674176719792	0.447245350237	-0.44698418	-0.013482375	0.89444025
-0.0653769584492	-0.320275068424	0.378377993646	-0.13075812	-0.64054482	0.75670645
0.436716950433	0.0461082546977	0.239099260228	0.87342304	0.092216968	0.47815083
0.0114122336631	-0.489736376952	-0.10013731391	0.022819246	-0.97946519	-0.20031782
0.414821765268	0.251285236021	-0.121566310985	0.82963296	0.50256821	-0.24317553
0.357569560686	0.299212768781	-0.180589307307	0.71512931	0.59842264	-0.36122074
-0.353201276724	0.197724705915	-0.293499650903	-0.70640294	0.39544786	-0.58703993
-0.305861487862	-0.301697490254	0.255814096047	-0.61172399	-0.60338991	0.51158028
0.0934338394664	0.191457329362	0.452369244208	0.18686137	0.38291319	0.90468797
0.263319680809	-0.41780694506	-0.0781135178926	0.5266308	-0.83560728	-0.15627052
0.238416780703	-0.224236686689	0.378017116253	0.47682533	-0.44846933	0.7559847
-0.16104224271	0.288231085972	-0.375464659331	-0.32208742	0.57645942	-0.75096886
0.387854981479	0.203760790934	0.240968557622	0.77569975	0.40751995	0.4818894
-0.449438399777	0.00954733379882	-0.218872686126	-0.89887591	0.019095611	-0.43778699
-0.352476071916	0.33078283809	-0.127823377469	-0.70495254	0.66156236	-0.25568958
-0.109227319177	0.0583364117704	0.484448676895	-0.21845826	0.11667312	0.96884641
-0.0583760520332	-0.443350094411	0.223710488201	-0.1167564	-0.88669324	0.44737349
-0.116620903197	-0.00326060516781	0.486223513662	-0.23324533	-0.0065200971	0.97239606
0.390685080242	-0.290511021088	0.113926260331	0.78135991	-0.58101712	0.22780649
0.275461661311	0.31782498718	-0.27037101256	0.5509146	0.63564683	-0.54078296
0.378639855382	0.187039365071	-0.267658839578	0.75726962	0.37407732	-0.53535865
-0.477683062039	-0.0480220013859	-0.139669276007	-0.95536486	-0.096042296	-0.27938122
-0.0482341627925	-0.279384172317	-0.411828830425	-0.096472756	-0.55876357	-0.82369672
0.2347210262	0.292903251949	-0.33030774994	0.46943387	0.58580369	-0.66065564
-0.256558650984	0.330259349619	0.274080802156	-0.51311897	0.66051539	0.54811345
-0.448837925795	0.215528393953	-0.0457252851586	-0.89767497	0.431055	-0.091494484
-0.494029420415	-0.0428499095949	-0.0640064343627	-0.98805736	-0.085698181	-0.12805654
0.128970480074	-0.00130188888152	-0.483060432691	0.25793418	-0.0026026905	-0.96615898
0.00607267776185	-0.489355194425	-0.102439859176	0.012140205	-0.97870283	-0.20492288
0.165198095263	0.429468262375	0.195650207161	0.33038893	0.8589319	0.3912533
0.259375274658	0.319314367054	0.284217769364	0.51874204	0.63862557	0.56838725
-0.287140048739	-0.364301230317	0.186670197623	-0.57428136	-0.72859656	0.3732934
0.194320793347	0.236050045012	0.395653213181	0.38863394	0.47209803	0.79125666
-0.273625314136	0.40780699376	-0.0939146126539	-0.54725207	0.81560965	-0.1878725
-0.466038634836	0.180663072796	-0.0130010101967	-0.93207616	0.36132482	-0.026046368
0.185761366598	-0.211370146384	0.41332585535	0.3715152	-0.42273642	0.82660171
-0.168590442755	0.465245149575	0.0716195898379	-0.33718372	0.9304852	0.14319371
0.387052891161	-0.228940442875	0.218612874403	0.77409558	-0.45787678	0.43717833
0.465411640679	-0.114144171776	0.142741951379	0.93081204	-0.22828576	0.28543749
0.323266068254	0.370472951236	0.0908704924714	0.64652278	0.74094206	0.18169526
-0.221106730938	0.377313511589	0.242402372128	-0.4422156	0.75462309	0.48475701
0.381091341636	-0.160298402778	0.281232559572	0.76217256	-0.32059361	0.56241687
-0.378710250849	-0.162046479368	-0.283387433859	-0.75742055	-0.32408974	-0.56681563
-0.161697042051	-0.105998217768	0.461130762297	-0.32339701	-0.21199396	0.92221089
0.348457205271	0.229561446992	-0.275448161221	0.69690472	0.45912092	-0.55093719
0.357864677643	-0.340892350116	0.075724127051	0.71571954	-0.68177911	0.15140273
-0.0459938869395	-0.495217563292	0.051478426302	-0.091992234	-0.99042749	0.10291165
0.00308119592833	-0.47648865912	0.151524424607	0.006157281	-0.95296993	0.30300232
-0.1570587713	0.412119502352	0.235589951961	-0.31412053	0.82423461	0.47113226
0.195362080251	0.437716952063	-0.142249883117	0.3907165	0.87542917	-0.2845424
-0.351995763732	-0.353630924573	-0.0323205917855	-0.70399193	-0.70725609	-0.064685275
0.0641624103968	-0.0870293970049	0.488195181734	0.1283189	-0.17405657	0.97633937
-0.0180830973909	-0.494201976559	-0.0737419689093	-0.036171025	-0.98839633	-0.14752748
-0.230732539757	-0.392598962931	0.206495294064	-0.46146709	-0.78519165	0.41294333
-0.377179375699	0.186061393587	-0.270381287628	-0.75435882	0.37212139	-0.54080351
-0.00896936746691	0.270848635726	-0.420172390743	-0.017943686	0.54169475	-0.84038373
-0.138871605719	0.042207837838	-0.478450037124	-0.27774644	0.084416186	-0.95693825
-0.0303042809174	0.0619677108459	0.495244178469	-0.06061323	0.12393567	0.99043727
0.0563222434165	-0.494887506104	-0.0437760287351	0.11263867	-0.98976738	-0.087595997
-0.284048098239	-0.381801686345	0.153470732511	-0.5680975	-0.76359724	0.30689491
-0.280114217157	-0.302696916881	0.282710819373	-0.56022979	-0.60538875	0.56537337
-0.0554802878343	-0.496727698305	-0.0136560710398	-0.11096491	-0.99344774	-0.027356481
0.347652764938	0.127182163218	0.33612818353	0.69529585	0.25436371	0.67220739
-0.100813598394	-0.464079266846	-0.156407771984	-0.20163093	-0.92815131	-0.31285799
-0.22683715393	-0.445523953824	-0.00745788994581	-0.45367637	-0.89104093	-0.014960201
-0.415312313521	-0.0809285165561	-0.266375101067	-0.83062419	-0.16185489	-0.53279119
0.284400650576	-0.375002601267	-0.168780814017	0.56879246	-0.74999916	-0.33760391
0.13904819189	0.461014661527	-0.13464253268	0.27808947	0.92202428	-0.2693278
0.490809409066	-0.0912956552902	0.0278992859723	0.98160724	-0.18258903	0.055753682
0.119711643688	0.177212049916	0.451983256649	0.23941663	0.35442282	0.903916
0.113341646455	0.367672937672	-0.319311072032	0.22667672	0.73534207	-0.63866243
-0.252357058127	-0.263942019936	-0.341522534294	-0.50471584	-0.52787947	-0.68308506
0.387908471833	0.314102342499	0.0295465603937	0.77580673	0.62820159	0.059048209
-0.10977227279	0.175877436067	0.455016486759	-0.21954816	0.35175361	0.90998242
0.0104765289594	-0.419404870654	-0.27199541333	0.020947849	-0.83880311	-0.54403174
0.385134873444	0.0681787620252	0.311515410347	0.77025957	0.13635769	0.62298217
-0.496479371658	-0.0339094483196	-0.0485495158833	-0.99295723	-0.067817377	-0.097142908
-0.435506902411	-0.120950321901	0.213811862573	-0.8710131	-0.24189797	0.42757637
-0.0496572487276	0.497507218473	0.00484454981937	-0.099318909	0.99500891	0.0096445154
0.344983732242	0.324840758694	0.159613683239	0.68995782	0.64967828	0.31918073
0.282286371559	-0.0581707756722	0.408599514015	0.56456393	-0.11633971	0.81714909
0.472602018351	-0.160438168705	-0.0301904486627	0.9451927	-0.32087314	-0.060425017
0.413026253364	-0.058528953047	0.275683552782	0.82604196	-0.11705606	0.55131893
-0.257896819856	-0.296477295644	-0.309158539721	-0.51579529	-0.59294959	-0.6183575
-0.132197236468	0.438787849163	-0.199955965708	-0.26439779	0.87757095	-0.3999538
-0.344439948637	-0.280384353948	-0.229646207554	-0.6888804	-0.56076392	-0.45933389
-0.360695766413	-0.345473040486	-0.0234042106699	-0.72139182	-0.69094043	-0.046852631
0.0692495441245	0.0725056357124	0.48987021784	0.1384931	0.14501138	0.97968942
-0.017935753414	0.238467431039	-0.439084291129	-0.035876339	0.47693277	-0.87820728
-0.241038783087	-0.187838170367	-0.395729453686	-0.48207944	-0.37567278	-0.79149818
0.465534366493	0.0237578885148	-0.180861589112	0.93105749	0.047516532	-0.3617653
-0.407891904323	-0.130450169885	0.258108166257	-0.81578347	-0.26089754	0.51616839
-0.152361050154	0.4509652999	0.153053199743	-0.30472515	0.90192569	0.30605985
0.484399406568	-0.0828965596042	-0.092125635793	0.96878732	-0.16579095	-0.18429457
0.263296335655	0.205897775102	-0.371845425335	0.52658411	0.41179389	-0.74373044
0.10325344457	0.327019503139	0.363891002597	0.20650045	0.65403574	0.72773266
-0.246590714896	0.150210590896	-0.408183206255	-0.49318323	0.30042026	-0.81640552
-0.131706133212	0.426544772992	0.225222708227	-0.26341559	0.85308496	0.45039791
0.265441774879	-0.0387545354426	-0.421929692394	0.53087496	-0.077507487	-0.84389831
-0.43110855825	-0.115717737209	-0.225268813532	-0.86221647	-0.23143287	-0.45057916
0.100379625517	0.139874237366	0.469450427456	0.20075285	0.27974769	0.93885011
-0.150270601294	-0.318735378216	0.35474666197	-0.30054428	-0.63746546	0.7094441
0.24508903994	-0.126587254273	0.417049505038	0.49016976	-0.25317176	0.83404896
0.100058303387	0.0272924094487	0.489151338073	0.20011021	0.054585527	0.97825167
0.455119752444	0.140337965441	0.152261349493	0.9102284	0.28067514	0.30447616
0.0577330077698	0.446140052909	-0.218218621789	0.11546018	0.89227526	-0.43647887
0.0534511943814	-0.494722145008	-0.0489377834575	0.10689661	-0.98943666	-0.097919438
0.12153992081	0.233040190056	-0.425329354934	0.24307316	0.46607836	-0.85069759
-0.0893702075245	0.489500160386	0.049061990781	-0.1787443	0.9789949	0.098078811
0.181915616101	-0.362394697677	-0.292520754413	0.36382375	-0.72478352	-0.58508215
0.105690535728	0.487873389601	0.0285248091195	0.2113746	0.97574138	0.05700472
-0.303036789134	0.175340047505	0.356990271846	-0.60607463	0.35067884	0.71393129
0.304717790279	-0.394620206332	-0.0377566253264	0.60942647	-0.78923411	-0.07555727
-0.202439567174	-0.336290714607	-0.309702498328	-0.40488152	-0.6725759	-0.61944541
0.240731776052	-0.155042677933	-0.409873677462	0.48145529	-0.31008223	-0.81978644
-0.307988611964	-0.383967320703	-0.0878087021717	-0.61597821	-0.76792848	-0.17566076
0.359503298507	0.21150225226	-0.275711467967	0.71899676	0.42300277	-0.5514638
-0.279789110002	-0.0485722085337	0.411556878622	-0.55957958	-0.097142703	0.82306378
0.135354612401	-0.184652284245	-0.444485176937	0.27070236	-0.36930105	-0.88900898
-0.0340403566876	-0.498830062243	0.00369658125833	-0.068085332	-0.99765244	0.0073485935
-0.400407869704	-0.168314700926	0.247701822263	-0.8008155	-0.3366261	0.49535584
-0.310094115924	-0.370887358983	-0.12759571596	-0.62018919	-0.74176873	-0.25523426
-0.280540859986	0.408054710403	0.0692294289911	-0.56108307	0.81610508	0.13841342
-0.251323376274	0.389707818763	-0.186969719609	-0.50264849	0.77941154	-0.37398148
0.37733634174	0.254476512179	-0.207013837502	0.75466261	0.50895072	-0.41406945
0.105797716439	0.228686176189	-0.431849343161	0.21158896	0.45737039	-0.86373748
-0.130833002423	-0.457398427552	-0.153836584937	-0.26166934	-0.91478972	-0.30771565
0.0972286446259	-0.0563321034818	0.487235920374	0.19445093	-0.11266239	0.97442086
0.333033498012	0.0883234305843	-0.362320902188	0.66605751	0.17664676	-0.72468152
0.0139612535631	-0.480528165902	0.137505591662	0.027917252	-0.96104889	0.27496484
-0.498932407922	0.0312215544989	-0.00959128859024	-0.99786327	0.062443765	-0.01922697
0.411449167908	0.272767108446	0.0794753719217	0.82288781	0.54553167	0.15890517
0.185299783538	-0.451909656161	0.107010064477	0.37059204	-0.90381225	0.21397419
0.280555725084	-0.353892216305	-0.214579462662	0.56110266	-0.70777867	-0.4292006
0.129947636553	0.37603474311	-0.302822672714	0.25988848	0.75206557	-0.60568585
0.49585062749	-0.00997116010879	-0.0635274961873	0.99168961	-0.019941118	-0.12709867
0.220255330293	-0.44275862049	-0.073851274634	0.44050267	-0.8855103	-0.14774609
0.395707688542	-0.197242542718	0.233509598169	0.79140506	-0.3944814	0.46697158
0.408649149344	-0.287385105363	0.0205495017432	0.81728781	-0.57476533	0.041054211
0.389925465206	0.0020636042817	-0.312962024938	0.77984069	0.0041282512	-0.62596442
-0.479025930942	0.133190178051	-0.0528481253831	-0.95805058	0.26637966	-0.10574007
0.105773206276	-0.435824564517	-0.221050795567	0.21153994	-0.87164228	-0.44214318
0.190443032637	-0.192624107098	0.420298231577	0.38087847	-0.38524459	0.84054637
0.0162774199193	0.187669784251	0.463183455906	0.032549554	0.37533815	0.92631625
-0.305378769661	-0.257111809651	0.3010859862	-0.61075856	-0.51421914	0.60212346
0.166895821519	-0.338782026125	0.327706632695	0.33378436	-0.67755849	0.6553644
0.408567038799	0.112126213397	-0.265507315314	0.81712359	0.22425201	-0.53105563
0.485646944839	-0.0894542830819	0.0784496101209	0.97128238	-0.17890631	0.15685366
-0.064754744324	0.49538914443	0.0199940795607	-0.1295137	0.99077279	0.039943374
0.382131463532	-0.00236972646129	0.322474088003	0.76425279	-0.0047383515	0.64489938
0.415893802376	-0.190247801343	0.20212062006	0.83177702	-0.38049201	0.40419404
-0.262493050329	-0.417360377099	0.0831495462815	-0.52498769	-0.83471415	0.16625347
0.492677011449	0.0825438022654	-0.0214627552981	0.98534242	0.16508758	-0.042969746
0.478406891838	0.0710167508411	-0.126820670821	0.95680237	0.14203363	-0.25368418
0.133068387243	-0.300592887931	0.376772883004	0.26612994	-0.60118072	0.75349625
0.219468525076	0.321892624148	-0.313382892729	0.43892907	0.64378205	-0.62680615
-0.147120225407	0.473667995419	-0.0631942939782	-0.29424357	0.94733078	-0.12643227
-0.337643928579	0.360958008152	-0.0755231707186	-0.67528845	0.7219123	-0.15108986
-0.374085320186	0.0382157503704	0.329569080043	-0.74817075	0.076432064	0.65908927
-0.270481653293	-0.39008451626	0.15710857163	-0.54096479	-0.78016279	0.31417054
0.398593137673	0.267503533548	-0.139872052352	0.79717592	0.53500459	-0.27978677
-0.463427832527	-0.162005284095	-0.0947937234824	-0.92685459	-0.32400735	-0.18963071
0.162925275195	0.44253840403	-0.166166736685	0.32584332	0.88507201	-0.33237579
-0.496856394158	-0.0207910083444	-0.0519611345023	-0.99371127	-0.041580671	-0.1039661
-0.281570781814	0.408522123502	0.0619013454059	-0.5631429	0.8170399	0.12375735
0.115652681777	0.481729548867	0.0675832330768	0.23129876	0.96345378	0.13512105
0.0335575984869	0.276361912279	0.415354858803	0.067109682	0.55272123	0.83065969
0.110804199632	0.453817993813	0.178277836982	0.22160186	0.90763104	0.35650879
0.331019959662	0.273017460106	-0.256672016735	0.66203046	0.54603237	-0.51338515
-0.0610584448175	0.180981004904	0.462105103757	-0.12212115	0.36196068	0.92415956
0.480343709679	0.109175458833	0.0857909687941	0.96067598	0.21835054	0.17153628
0.0438289425859	-0.300237605575	0.397439250022	0.087652234	-0.60047016	0.79482871
-0.270436152992	-0.321774798367	-0.270768350194	-0.54087379	-0.64354426	-0.54157763
-0.343820779532	-0.356024465442	-0.0709411603399	-0.68764207	-0.71204314	-0.1419259
0.195182739062	0.169451813466	0.428033832864	0.39035782	0.33890245	0.85601747
-0.0461986817973	0.484046654229	0.116500072395	-0.092401821	0.96808796	0.23295408
0.244501141043	0.246315808074	0.359955596506	0.48899397	0.49262942	0.7198619
0.243047336404	-0.413188109437	-0.142134582352	0.48608638	-0.82636967	-0.2843118
-0.448298377218	0.214990590388	0.0530168165015	-0.89659588	0.4299794	0.10598841
0.417032244924	-0.271337318966	0.049679933878	0.83405389	-0.54266997	0.099314689
-0.381529219539	0.206515239196	0.24859432318	-0.76305845	0.41302881	0.49714083
0.488114541199	-0.0147710524321	0.107408557119	0.97621754	-0.029540839	0.21477117
-0.257697633535	0.428452205638	0.00473267392763	-0.51539692	0.8568998	0.0094207651
-0.178758010166	0.254736628904	-0.391330469521	-0.35751872	0.50947095	-0.78270027
-0.499824208835	-0.0128784718843	0.00329311648336	-0.99964686	-0.025755703	0.0065416693
0.177442056441	0.456201509616	0.10199394122	0.35487669	0.91239804	0.20394201
-0.220807103951	-0.277652965839	0.352379386275	-0.44161635	-0.55530118	0.70470958
0.0558869605305	0.0453560322105	-0.49477368535	0.11176811	0.090712533	-0.98958533
-0.113001239198	-0.392985385493	0.287765847888	-0.22600605	-0.78596449	0.57548336
-0.459496991465	0.0329458644311	0.194387978792	-0.91899296	0.065892362	0.38872886
-0.410905654304	-0.0623442183422	0.277998953133	-0.82181093	-0.12468654	0.5559497
-0.0917676734197	-0.432430522014	-0.23361389386	-0.1835392	-0.86485424	-0.46726921
-0.490109369425	-0.0906857862468	-0.0395986930393	-0.98021731	-0.1813693	-0.079241381
0.292847171577	0.234892482337	0.330280649761	0.58568539	0.46978292	0.6605124
-0.448088025824	0.213717146945	-0.0595001394859	-0.89617518	0.42743253	-0.11904401
-0.0949429494718	-0.221443933173	-0.438100429606	-0.18988971	-0.44288386	-0.87623957
-0.102622035384	-0.412147297537	0.263852809344	-0.20524778	-0.82428806	0.5276576
-0.237966607719	-0.0266368476023	0.438957915291	-0.47593513	-0.053272272	0.87786549
-0.105876716963	0.0478895680078	-0.486289819102	-0.2117571	0.095779571	-0.97261771
-0.130128552752	0.174840629193	-0.449977498351	-0.26026045	0.34968001	-0.89999355
0.269687063025	-0.0483650506603	-0.418229392861	0.53936548	-0.09672839	-0.83649776
-0.35978437037	-0.335296293014	-0.0901633827832	-0.71956904	-0.67058707	-0.18037009
0.0295496079139	-0.494731925073	-0.0660923331922	0.059093754	-0.98945622	-0.13222831
-0.376986624421	-0.0053859422088	-0.328388282214	-0.75397332	-0.010770743	-0.65681673
-0.318075238839	-0.379984664298	0.0666699020215	-0.63615133	-0.75996322	0.1332944
0.210498960608	-0.00441993305416	0.453536361946	0.42099006	-0.0088387375	0.90702219
-0.445573314151	-0.175422098049	-0.143827498576	-0.89114579	-0.3508408	-0.28769761
0.499744703307	0.0157968117329	-0.00337214870735	0.99947771	0.031594484	-0.0067887727
-0.128389721224	0.132365452583	0.464778096479	-0.25678281	0.26473022	0.92950551
0.0215089416043	0.138749994912	0.479906706781	0.043012528	0.27749922	0.95976253
-0.327200679341	0.254305431045	-0.279745229711	-0.65440209	0.50860856	-0.55953127
0.0732723057954	-0.318401991005	0.378513169542	0.14653857	-0.63679869	0.7569768
0.410482126496	-0.0748369861692	-0.275494211527	0.82095374	-0.14967191	-0.55102929
-0.211306335961	0.452476389918	-0.0248073139725	-0.42261494	0.90494785	-0.049658819
0.209087966253	0.266801428893	0.367586282097	0.41816809	0.53360039	0.73512317
0.242543918066	-0.162042559342	0.406124927608	0.48507955	-0.3240819	0.81219995
-0.103392925495	0.463378222198	0.156843239871	-0.20678955	0.92675137	0.31363988
-0.305528595655	-0.103977889373	0.381915902102	-0.61105821	-0.20795333	0.76378222
0.332861526872	-0.30254752089	0.21836494776	0.66571357	-0.60508996	0.43668248
-0.423206880862	0.0556511539672	-0.2603620612	-0.84641322	0.11130264	-0.52076519
-0.0292486164183	-0.1439668745	0.477956753853	-0.058501915	-0.28793077	0.95586265
0.436293217624	-0.0663268197468	-0.23504066832	0.87257558	-0.13265169	-0.47012274
0.167979338703	-0.182230113186	-0.434235138979	0.33595138	-0.36445674	-0.86850904
0.423661343875	0.229498026572	-0.13357017557	0.847312	0.45899408	-0.2671831
0.372396158987	-0.28510249023	-0.173307419028	0.74478231	-0.57020013	-0.34665706
0.0586967541595	0.462604162066	-0.180408331107	0.11738766	0.92520326	-0.36085879
0.0479827021253	-0.432210315554	-0.246748730944	0.095959698	-0.86441383	-0.49353871
0.19855053139	0.103449870873	-0.447057173989	0.39709336	0.20689944	-0.89415294
-0.13431227549	-0.101973046081	-0.470684075635	-0.26862784	-0.20394367	-0.94140643
0.41773456958	0.0789421883867	-0.263172169831	0.83545853	0.1578844	-0.52638537
-0.139315628663	-0.421596295183	0.229915234338	-0.27863448	-0.84318593	0.4597829
-0.444008078774	-0.0244016042826	0.228632140831	-0.88801534	-0.048801815	0.45721673
-0.295498484155	0.248984500767	0.317337423947	-0.59099812	0.49796677	0.63462612
-0.234345893713	-0.407935479612	0.169353907816	-0.46869375	-0.81586448	0.33866105
-0.204400530176	-0.133338479034	0.43642080847	-0.40880342	-0.26667412	0.87279131
-0.263552922356	0.415312513522	0.0897825452583	-0.52710742	0.83062059	0.17951938
0.38163348523	0.0404758073546	0.320526235089	0.76325684	0.080952148	0.6410037
0.371810885106	0.30306036429	0.141146170799	0.74361177	0.60611778	0.28224595
-0.220356610964	0.218981241846	0.391802992654	-0.44071537	0.43796065	0.78355627
0.0925204834108	0.416451306072	0.260812614188	0.18503467	0.83289816	0.52157725
0.291360756722	-0.285944375811	0.288725949253	0.58271258	-0.57188389	0.57740355
-0.290364560117	-0.391342164599	-0.111968787353	-0.58073034	-0.78267807	-0.22398061
-0.0458328663719	0.445181076551	0.222992578441	-0.091670195	0.89035732	0.44593768
-0.470497164396	-0.000981646208314	-0.169188806722	-0.94099316	-0.0019622094	-0.33841989
0.418332888547	-0.127884337873	0.242197325768	0.83665516	-0.25576591	0.48434692
-0.126215431808	-0.365490683203	-0.316978201565	-0.25243426	-0.73097545	-0.63399672
-0.437114978072	0.0123376352985	-0.24242230226	-0.87422923	0.024676177	-0.48488591
-0.196090155078	0.263716943443	-0.376812003264	-0.39218278	0.52743146	-0.75366353
0.425348950064	0.246113721734	-0.0922356165221	0.85068719	0.49222525	-0.18451453
0.291966090735	0.393359807976	0.100163344083	0.58392324	0.78671547	0.20028084
-0.182114922422	0.294508392591	0.360717476557	-0.3642325	0.58901395	0.72138565
0.0955092782265	-0.226927809531	-0.435162515127	0.19101222	-0.45385154	-0.87036378
0.000401236625199	-0.437324089459	0.242408857171	0.00079739793	-0.87464131	0.48476998
-0.149501631196	0.474421555415	0.050771641616	-0.29900635	0.94883789	0.10149809
-0.329708430967	-0.374753064613	-0.0292102171637	-0.65941756	-0.74950009	-0.058464567
-0.469518612908	-0.170927348248	-0.0183416606052	-0.93903607	-0.34185136	-0.036727598
-0.405508863524	-0.0310123596119	-0.290842118283	-0.81101742	-0.062023238	-0.5817249
-0.222696681479	-0.415682360974	0.166205871945	-0.44539548	-0.83135814	0.33236502
0.485455968573	-0.0438591977865	0.111443523871	0.97090043	-0.087716744	0.22284105
0.026220056839	0.134933739611	0.480759922438	0.052434696	0.26986676	0.96146895
0.0687882810663	0.262370749518	-0.420017194714	0.13757058	0.52473909	-0.84007334
-0.418371168801	0.249608004901	0.112549301202	-0.83674186	0.49921377	0.22505259
-0.0465789538185	-0.416655237424	0.272478381532	-0.09316236	-0.83330388	0.54490863
-0.414753689817	0.172520018808	-0.219562000696	-0.82950695	0.34503882	-0.43916561
0.0916233874631	0.0521434057108	-0.488741430356	0.18324049	0.10428719	-0.9775209
0.242346696759	0.213846297801	-0.381477614197	0.48468511	0.42769083	-0.76299469
-0.22783713556	-0.0130308848948	-0.44486267944	-0.45567632	-0.026060527	-0.88976398
-0.254099069677	0.351374454613	0.248962625622	-0.50819984	0.70274532	0.49787743
0.149290029793	0.199343556648	0.433587124683	0.29857301	0.39868554	0.86712398
-0.133115612557	-0.137743373239	-0.461832461949	-0.26623453	-0.27548385	-0.92370332
-0.016191400849	-0.342956573802	-0.363463949766	-0.032387657	-0.68590753	-0.7269676
-0.381905567034	-0.047896231052	-0.319125850804	-0.76381114	-0.095790757	-0.63829199
0.308663076436	0.151283823012	0.363126967532	0.61731699	0.30256671	0.7262046
-0.16616437667	0.452095417393	-0.134146004388	-0.33233162	0.90418591	-0.26833475
0.160471453926	0.470200077427	0.0562754931065	0.32093571	0.94039499	0.11250572
0.1373604857	-0.349889744769	0.329739791175	0.27471408	-0.69977378	0.65943069
-0.244430350573	0.425702572408	0.0950630102678	-0.48886253	0.85140057	0.19008024
-0.154552359682	-0.161774662566	-0.447130099473	-0.30910774	-0.32354611	-0.89429879
0.282585773544	-0.322142075802	0.257655443256	0.56516273	-0.64427881	0.51526295
-0.052842680347	0.439174406726	0.233123250607	-0.10568973	0.87834406	0.46619889
-0.313526043678	0.372003466383	0.115417965221	-0.627053	0.74400307	0.23078988
0.191302003332	0.00670757047119	-0.46188988233	0.3825964	0.013416122	-0.92381816
-0.230988656455	0.425404925435	-0.125183879969	-0.46197932	0.85080528	-0.25041062
-0.0458905932546	-0.482675550139	-0.122133239743	-0.091785648	-0.96534363	-0.24430938
-0.298749490709	0.391293494276	0.0874266446387	-0.59750009	0.78258287	0.17480761
0.326458969423	-0.256532775812	-0.278582697003	0.65290854	-0.51306108	-0.55720622
-0.476856976562	-0.0689078068588	0.133663976192	-0.9537127	-0.13781363	0.26728166
